# .PCD v0.7 - Point Cloud Data file format
VERSION 0.7
FIELDS x y z rgb label
SIZE 4 4 4 4 4
TYPE F F F F U
COUNT 1 1 1 1 1
WIDTH 741
HEIGHT 1
VIEWPOINT 0 0 0 1 0 0 0
POINTS 741
DATA ascii
-99.000015 2.255811 -83.070847 1.880790849211783e-38 1819042167
-18.939707 -1.584532 -15.892297 5.255150902209393e-39 1851878480
-20.415955 -1.552096 -17.131014 4.516506863485282e-39 1851878480
-99.000015 7.526347 -83.070854 1.880790849211783e-38 1819042167
-99.000015 5.265182 -83.070847 1.880790849211783e-38 1819042167
-24.168571 -1.469641 -20.279835 7.837347404494627e-39 1851878480
-22.134897 -1.514326 -18.573380 7.099063499475847e-39 1851878480
-99.000015 15.868102 -83.070847 1.880790849211783e-38 1819042167
-99.000015 10.550144 -83.070847 1.880790849211783e-38 1819042167
-26.620373 -1.415769 -22.337137 4.793819625679770e-39 1851878480
-28.500000 -1.299196 -23.914331 1.880790849211783e-38 1952867692
-99.000015 34.628502 -83.070847 1.880790849211783e-38 1819042167
-99.000023 23.562941 -83.070862 1.880790849211783e-38 1819042167
-28.500002 -0.865719 -23.914333 1.880790849211783e-38 1952867692
-3.181931 -1.931265 -2.651085 5.623932020364220e-39 1851878480
-28.500006 -0.647508 -23.745314 1.880790849211783e-38 1952867692
-28.499998 -1.079590 -23.745304 1.880790849211783e-38 1952867692
-5.180627 -1.887661 -4.316336 6.728837642604302e-39 1851878480
-7.091125 -1.845977 -5.908103 1.410051815312068e-38 1851878480
-91.702141 0.000000 -76.403351 4.979282878731624e-39 1851878480
-28.500004 -0.431863 -23.745312 1.880790849211783e-38 1952867692
-8.919035 -1.806097 -7.431061 8.204692191723521e-39 1851878480
-10.670637 -1.767881 -8.890441 3.042817320493445e-39 1851878480
-99.000031 0.748928 -82.483727 1.880790849211783e-38 1819042167
-68.091873 -0.515110 -56.732018 1.936111029726705e-39 1851878480
-12.348265 -1.731279 -10.288188 5.439180626932243e-39 1851878480
-13.959617 -1.696124 -11.630716 7.095820894829399e-39 1851878480
-99.000015 2.998470 -82.483711 1.880790849211783e-38 1819042167
-99.000008 1.500156 -82.483711 1.880790849211783e-38 1819042167
-17.731205 -1.613840 -14.773085 3.780741091806893e-39 1851878480
-15.621361 -1.659872 -13.015229 5.255150902209393e-39 1851878480
-99.000000 3.750155 -82.483696 1.880790849211783e-38 1819042167
-99.000023 2.249237 -82.483719 1.880790849211783e-38 1819042167
-19.011528 -1.585906 -15.839811 5.347346532072716e-39 1851878480
-20.494759 -1.553547 -17.075590 3.871497588147354e-39 1851878480
-99.000015 7.504413 -82.483711 1.880790849211783e-38 1819042167
-99.000031 5.249840 -82.483727 1.880790849211783e-38 1819042167
-24.266050 -1.471268 -20.217712 6.546607185109645e-39 1851878480
-22.222099 -1.515861 -18.514757 6.638088152756162e-39 1851878480
-99.000015 15.821860 -82.483719 1.880790849211783e-38 1819042167
-99.000015 10.519400 -82.483719 1.880790849211783e-38 1819042167
-26.730734 -1.417495 -22.271210 4.886013854244628e-39 1851878480
-28.500004 -1.295410 -23.745310 1.880790849211783e-38 1952867692
-99.000015 34.527584 -82.483711 1.880790849211783e-38 1819042167
-99.000015 23.494272 -82.483719 1.880790849211783e-38 1819042167
-28.500004 -0.863196 -23.745310 1.880790849211783e-38 1952867692
-3.191624 -1.931542 -2.640340 5.531736390500897e-39 1851878480
-28.500002 -0.645634 -23.577246 1.880790849211783e-38 1952867692
-28.500002 -1.076466 -23.577244 1.880790849211783e-38 1952867692
-5.196889 -1.888106 -4.299239 7.005424532194270e-39 1851878480
-7.113997 -1.846572 -5.885209 1.419307391668934e-38 1851878480
-92.355835 0.000000 -76.403358 4.794535689195040e-39 1851878480
-28.500006 -0.430613 -23.577248 1.880790849211783e-38 1952867692
-8.948575 -1.806835 -7.402902 7.467487286522271e-39 1851878480
-10.706844 -1.768746 -8.857468 2.950261556924790e-39 1851878480
-99.000008 0.746761 -81.899902 1.880790849211783e-38 1819042167
-68.502937 -0.516720 -56.670540 4.149164878853317e-39 1851878480
-12.391117 -1.732259 -10.250819 5.070396706180488e-39 1851878480
-14.009080 -1.697208 -11.589314 7.648993272710871e-39 1851878480
-99.000023 2.989792 -81.899902 1.880790849211783e-38 1819042167
-99.000023 1.495815 -81.899918 1.880790849211783e-38 1819042167
-17.797108 -1.615150 -14.723042 4.425751768443285e-39 1851878480
-15.677897 -1.661058 -12.969879 6.361498460569266e-39 1851878480
-99.000008 3.739302 -81.899895 1.880790849211783e-38 1819042167
-99.000008 2.242728 -81.899902 1.880790849211783e-38 1819042167
-19.083317 -1.587287 -15.787086 4.794172752892780e-39 1851878480
-20.573530 -1.555004 -17.019897 3.503433934806262e-39 1851878480
-99.000008 7.482694 -81.899895 1.880790849211783e-38 1819042167
-98.999992 5.234645 -81.899887 1.880790849211783e-38 1819042167
-24.363533 -1.472903 -20.155258 5.809042146203064e-39 1851878480
-22.309275 -1.517403 -18.455830 7.191261931936098e-39 1851878480
-99.000000 15.776068 -81.899879 1.880790849211783e-38 1819042167
-99.000008 10.488955 -81.899895 1.880790849211783e-38 1819042167
-26.841141 -1.419231 -22.204912 3.595632367266514e-39 1851878480
-28.500000 -1.291661 -23.577240 1.880790849211783e-38 1952867692
-99.000023 34.427666 -81.899910 1.880790849211783e-38 1819042167
-99.000000 23.426275 -81.899887 1.880790849211783e-38 1819042167
-28.500002 -0.860698 -23.577242 1.880790849211783e-38 1952867692
-3.201288 -1.931824 -2.629568 5.439540760637574e-39 1851878480
-28.639795 -0.646936 -23.524992 1.880790849211783e-38 1952867692
-28.653580 -1.079157 -23.536316 1.880790849211783e-38 1952867692
-5.213097 -1.888553 -4.282086 7.189817193219380e-39 1851878480
-7.136835 -1.847177 -5.862262 1.428526954655266e-38 1851878480
-93.014977 0.000000 -76.403366 4.241722043720435e-39 1851878480
-28.632927 -0.431379 -23.519350 1.880790849211783e-38 1952867692
-8.978040 -1.807576 -7.374645 6.545530987889044e-39 1851878480
-10.742959 -1.769613 -8.824367 2.950620289331658e-39 1851878480
-99.000008 0.744615 -81.319519 1.880790849211783e-38 1819042167
-68.916313 -0.518345 -56.608501 3.135012950356767e-39 1851878480
-12.433878 -1.733243 -10.213302 5.346626264662053e-39 1851878480
-14.058459 -1.698297 -11.547750 8.294362681754130e-39 1851878480
-99.000015 2.981202 -81.319527 1.880790849211783e-38 1819042167
-99.000008 1.491517 -81.319519 1.880790849211783e-38 1819042167
-17.862940 -1.616467 -14.672783 5.439903696939834e-39 1851878480
-15.734351 -1.662250 -12.924342 7.560041648792461e-39 1851878480
-99.000015 3.728559 -81.319534 1.880790849211783e-38 1819042167
-99.000008 2.236284 -81.319519 1.880790849211783e-38 1819042167
-19.155029 -1.588674 -15.734118 4.056607713986198e-39 1851878480
-20.652260 -1.556470 -16.963959 3.319762942490280e-39 1851878480
-99.000023 7.461197 -81.319534 1.880790849211783e-38 1819042167
-99.000023 5.219606 -81.319542 1.880790849211783e-38 1819042167
-24.461002 -1.474547 -20.092491 6.177826066954819e-39 1851878480
-22.396420 -1.518954 -18.396627 9.127371560364339e-39 1851878480
-99.000008 15.730742 -81.319527 1.880790849211783e-38 1819042167
-99.000015 10.458819 -81.319527 1.880790849211783e-38 1819042167
-26.951586 -1.420976 -22.138283 3.319044076378081e-39 1851878480
-28.660458 -1.295201 -23.541965 1.880790849211783e-38 1952867692
-99.000008 34.328743 -81.319519 1.880790849211783e-38 1819042167
-99.000015 23.358971 -81.319527 1.880790849211783e-38 1819042167
-28.646673 -0.862641 -23.530642 1.880790849211783e-38 1952867692
-3.210926 -1.932111 -2.618766 5.439180626932243e-39 1851878480
-28.844599 -0.649704 -23.525068 1.880790849211783e-38 1952867692
-28.858530 -1.083775 -23.536432 1.880790849211783e-38 1952867692
-5.229255 -1.889002 -4.264874 7.282012823082702e-39 1851878480
-7.159603 -1.847783 -5.839227 1.428562827895953e-38 1851878480
-93.679817 0.000000 -76.403351 4.609781493166134e-39 1851878480
-28.837643 -0.433223 -23.519396 1.880790849211783e-38 1952867692
-9.007425 -1.808317 -7.346273 5.807965948982462e-39 1851878480
-10.778989 -1.770482 -8.791124 2.950620289331658e-39 1851878480
-99.000015 0.742491 -80.742401 1.880790849211783e-38 1819042167
-69.332138 -0.519984 -56.545879 2.582556635990565e-39 1851878480
-12.476558 -1.734230 -10.175627 6.545170854183712e-39 1851878480
-14.107765 -1.699391 -11.506006 8.202167051890807e-39 1851878480
-99.000015 2.972696 -80.742401 1.880790849211783e-38 1819042167
-99.000031 1.487262 -80.742416 1.880790849211783e-38 1819042167
-17.928705 -1.617789 -14.622288 5.900520311252652e-39 1851878480
-15.790750 -1.663448 -12.878614 8.297606687699042e-39 1851878480
-99.000031 3.717921 -80.742416 1.880790849211783e-38 1819042167
-99.000008 2.229903 -80.742393 1.880790849211783e-38 1819042167
-19.226690 -1.590068 -15.680898 4.240998973712844e-39 1851878480
-20.730946 -1.557942 -16.907738 3.227568713925421e-39 1851878480
-99.000015 7.439908 -80.742409 1.880790849211783e-38 1819042167
-99.000008 5.204713 -80.742393 1.880790849211783e-38 1819042167
-24.558477 -1.476199 -20.029396 6.454412956544787e-39 1851878480
-22.483557 -1.520513 -18.337133 9.957132229134243e-39 1851878480
-99.000015 15.685861 -80.742401 1.880790849211783e-38 1819042167
-99.000015 10.428978 -80.742401 1.880790849211783e-38 1819042167
-27.062077 -1.422731 -22.071280 2.950261556924790e-39 1851878480
-28.865498 -1.300745 -23.542112 1.880790849211783e-38 1952867692
-99.000008 34.230797 -80.742401 1.880790849211783e-38 1819042167
-99.000015 23.292322 -80.742401 1.880790849211783e-38 1819042167
-28.851543 -0.866332 -23.530733 1.880790849211783e-38 1952867692
-3.220512 -1.932390 -2.607919 5.347343729475787e-39 1851878480
-29.051130 -0.652502 -23.525139 1.880790849211783e-38 1952867692
-29.065226 -1.088445 -23.536552 1.880790849211783e-38 1952867692
-5.245370 -1.889456 -4.247617 7.282371555489569e-39 1851878480
-7.182294 -1.848388 -5.816106 1.437818404252818e-38 1851878480
-94.350334 0.000000 -76.403381 3.319042675079617e-39 1851878480
-29.044098 -0.435089 -23.519444 1.880790849211783e-38 1952867692
-9.036731 -1.809062 -7.317801 5.254792169802526e-39 1851878480
-10.814947 -1.771356 -8.757771 2.950979021738525e-39 1851878480
-99.000008 0.740387 -80.168617 1.880790849211783e-38 1819042167
-69.750343 -0.521639 -56.482708 4.426470634555484e-39 1851878480
-12.519135 -1.735219 -10.137794 8.573477513773740e-39 1851878480
-14.156984 -1.700489 -11.464097 7.556797642847549e-39 1851878480
-99.000015 2.964275 -80.168617 1.880790849211783e-38 1819042167
-99.000008 1.483049 -80.168617 1.880790849211783e-38 1819042167
-17.994390 -1.619117 -14.571569 5.070759642482748e-39 1851878480
-15.847057 -1.664651 -12.832694 8.113215427972397e-39 1851878480
-99.000008 3.707389 -80.168617 1.880790849211783e-38 1819042167
-99.000015 2.223587 -80.168625 1.880790849211783e-38 1819042167
-19.298277 -1.591467 -15.627437 5.531737791799361e-39 1851878480
-20.809566 -1.559421 -16.851252 3.227207178921626e-39 1851878480
-99.000008 7.418833 -80.168617 1.880790849211783e-38 1819042167
-99.000015 5.189970 -80.168617 1.880790849211783e-38 1819042167
-24.655937 -1.477859 -19.965981 5.809043547501528e-39 1851878480
-22.570635 -1.522078 -18.277338 8.205412459134184e-39 1851878480
-99.000015 15.641429 -80.168633 1.880790849211783e-38 1819042167
-99.000015 10.399438 -80.168633 1.880790849211783e-38 1819042167
-27.172594 -1.424494 -22.003929 3.226848446514758e-39 1851878480
-29.072271 -1.306352 -23.542259 1.880790849211783e-38 1952867692
-99.000008 34.133835 -80.168625 1.880790849211783e-38 1819042167
-99.000015 23.226345 -80.168633 1.880790849211783e-38 1819042167
-29.058167 -0.870064 -23.530836 1.880790849211783e-38 1952867692
-3.230079 -1.932680 -2.597051 5.346984997068920e-39 1851878480
-29.259453 -0.655333 -23.525213 1.880790849211783e-38 1952867692
-29.273714 -1.093170 -23.536678 1.880790849211783e-38 1952867692
-5.261427 -1.889910 -4.230298 7.282731689194901e-39 1851878480
-7.204909 -1.848994 -5.792897 1.447037827109304e-38 1851878480
-95.026596 0.000000 -76.403374 6.911789768808086e-39 1851878480
-29.252340 -0.436976 -23.519493 1.880790849211783e-38 1952867692
-9.065968 -1.809810 -7.289227 5.070759642482748e-39 1851878480
-10.850825 -1.772234 -8.724291 2.950979021738525e-39 1851878480
-99.000015 0.738305 -79.598083 1.880790849211783e-38 1819042167
-70.170975 -0.523309 -56.418930 4.149166280151781e-39 1851878480
-12.561636 -1.736213 -10.099818 1.060178137076684e-38 1851878480
-14.206109 -1.701590 -11.422009 6.543365981761662e-39 1851878480
-99.000008 2.955938 -79.598083 1.880790849211783e-38 1819042167
-99.000008 1.478878 -79.598076 1.880790849211783e-38 1819042167
-18.060009 -1.620451 -14.520624 3.872215052961089e-39 1851878480
-15.903276 -1.665858 -12.786567 7.007228003317856e-39 1851878480
-99.000008 3.696962 -79.598068 1.880790849211783e-38 1819042167
-99.000008 2.217333 -79.598076 1.880790849211783e-38 1819042167
-19.369816 -1.592875 -15.573738 7.375650389065815e-39 1851878480
-20.888151 -1.560908 -16.794510 3.319402808784948e-39 1851878480
-99.000015 7.397968 -79.598076 1.880790849211783e-38 1819042167
-99.000015 5.175374 -79.598083 1.880790849211783e-38 1819042167
-24.753393 -1.479528 -19.902246 4.610141626871466e-39 1851878480
-22.657679 -1.523651 -18.217247 4.793455288079046e-39 1851878480
-99.000023 15.597438 -79.598083 1.880790849211783e-38 1819042167
-99.000015 10.370189 -79.598076 1.880790849211783e-38 1819042167
-27.283148 -1.426267 -21.936222 3.319402808784948e-39 1851878480
-29.280840 -1.312023 -23.542408 1.880790849211783e-38 1952867692
-99.000008 34.037830 -79.598068 1.880790849211783e-38 1819042167
-99.000008 23.161020 -79.598083 1.880790849211783e-38 1819042167
-29.266575 -0.873840 -23.530939 1.880790849211783e-38 1952867692
-3.239604 -1.932966 -2.586142 5.254789367205598e-39 1851878480
-29.469625 -0.658197 -23.525288 1.880790849211783e-38 1952867692
-29.484049 -1.097949 -23.536802 1.880790849211783e-38 1952867692
-5.277439 -1.890367 -4.212924 7.374567185352892e-39 1851878480
-7.227462 -1.849601 -5.769606 1.456221516854950e-38 1851878480
-95.708878 0.000000 -76.403374 2.765871698496609e-39 1851878480
-29.462425 -0.438885 -23.519541 1.880790849211783e-38 1952867692
-9.095124 -1.810560 -7.260540 4.978564012619425e-39 1851878480
-10.886609 -1.773113 -8.690663 3.042814517896516e-39 1851878480
-99.000008 0.736243 -79.030655 1.880790849211783e-38 1819042167
-70.594154 -0.524995 -56.354565 9.497228875739767e-39 1851878480
-12.604075 -1.737213 -10.061698 1.170848766153358e-38 1851878480
-14.255158 -1.702697 -11.379741 5.806519808967279e-39 1851878480
-98.999992 2.947682 -79.030640 1.880790849211783e-38 1819042167
-99.000008 1.474747 -79.030647 1.880790849211783e-38 1819042167
-18.125566 -1.621791 -14.469447 3.134648612756043e-39 1851878480
-15.959435 -1.667072 -12.740246 5.624293555368016e-39 1851878480
-99.000008 3.686637 -79.030647 1.880790849211783e-38 1819042167
-99.000015 2.211140 -79.030655 1.880790849211783e-38 1819042167
-19.441294 -1.594288 -15.519777 8.942973294145372e-39 1851878480
-20.966694 -1.562401 -16.737486 3.596348430781784e-39 1851878480
-99.000015 7.377306 -79.030647 1.880790849211783e-38 1819042167
-99.000015 5.160920 -79.030655 1.880790849211783e-38 1819042167
-24.850868 -1.481206 -19.838182 4.057326580098397e-39 1851878480
-22.744728 -1.525233 -18.156874 3.503075202399395e-39 1851878480
-99.000015 15.553877 -79.030663 1.880790849211783e-38 1819042167
-99.000000 10.341225 -79.030640 1.880790849211783e-38 1819042167
-27.393751 -1.428050 -21.868137 5.255150902209393e-39 1851878480
-29.491261 -1.317761 -23.542559 1.880790849211783e-38 1952867692
-99.000015 33.942776 -79.030655 1.880790849211783e-38 1819042167
-99.000023 23.096338 -79.030663 1.880790849211783e-38 1819042167
-29.476822 -0.877660 -23.531034 1.880790849211783e-38 1952867692
-3.249085 -1.933247 -2.575194 5.162593737342275e-39 1851878480
-29.681616 -0.661093 -23.525362 1.880790849211783e-38 1952867692
-29.696213 -1.102784 -23.536932 1.880790849211783e-38 1952867692
-5.293396 -1.890826 -4.195495 7.374927319058224e-39 1851878480
-7.249963 -1.850215 -5.746251 1.456257390095636e-38 1851878480
-96.397057 0.000000 -76.403381 5.715404580219951e-39 1851878480
-29.674334 -0.440816 -23.519594 1.880790849211783e-38 1952867692
-9.124216 -1.811315 -7.231766 5.070759642482748e-39 1851878480
-10.922328 -1.773998 -8.656933 3.135010147759839e-39 1851878480
-99.000008 0.734202 -78.466461 1.880790849211783e-38 1819042167
-71.019791 -0.526696 -56.289612 7.284173625314691e-39 1851878480
-12.646401 -1.738214 -10.023417 1.207762751209527e-38 1851878480
-14.304124 -1.703808 -11.337311 5.529934320675775e-39 1851878480
-99.000008 2.939510 -78.466461 1.880790849211783e-38 1819042167
-99.000015 1.470659 -78.466469 1.880790849211783e-38 1819042167
-18.191048 -1.623137 -14.418049 2.950257353029397e-39 1851878480
-16.015499 -1.668290 -12.693730 4.241717839825042e-39 1851878480
-99.000008 3.676415 -78.466454 1.880790849211783e-38 1819042167
-99.000031 2.205010 -78.466469 1.880790849211783e-38 1819042167
-19.512691 -1.595706 -15.465572 8.850776262983585e-39 1851878480
-21.045160 -1.563900 -16.680191 3.319402808784948e-39 1851878480
-99.000015 7.356853 -78.466454 1.880790849211783e-38 1819042167
-99.000015 5.146611 -78.466461 1.880790849211783e-38 1819042167
-24.948328 -1.482892 -19.773804 4.517944595709679e-39 1851878480
-22.831722 -1.526821 -18.096205 3.779301958284032e-39 1851878480
-99.000015 15.510751 -78.466454 1.880790849211783e-38 1819042167
-99.000008 10.312553 -78.466454 1.880790849211783e-38 1819042167
-27.504396 -1.429842 -21.799719 1.014115915126016e-38 1851878480
-29.703505 -1.323565 -23.542713 1.880790849211783e-38 1952867692
-99.000023 33.848667 -78.466469 1.880790849211783e-38 1819042167
-99.000000 23.032295 -78.466446 1.880790849211783e-38 1819042167
-29.688898 -0.881523 -23.531136 1.880790849211783e-38 1952867692
-3.258547 -1.933540 -2.564223 5.162592336043810e-39 1851878480
-29.895508 -0.664024 -23.525438 1.880790849211783e-38 1952867692
-29.910278 -1.107675 -23.537060 1.880790849211783e-38 1952867692
-5.309296 -1.891284 -4.178003 7.282731689194901e-39 1851878480
-7.272374 -1.850825 -5.722792 1.456257530225483e-38 1851878480
-97.091408 0.000000 -76.403381 4.886011051647700e-39 1851878480
-29.888151 -0.442770 -23.519648 1.880790849211783e-38 1952867692
-9.153236 -1.812073 -7.202884 5.347346532072716e-39 1851878480
-10.957964 -1.774886 -8.623065 3.134651415352971e-39 1851878480
-99.000015 0.732181 -77.905304 1.880790849211783e-38 1819042167
-71.448036 -0.528413 -56.224041 4.241357706119711e-39 1851878480
-12.688664 -1.739222 -9.984990 1.106347558359872e-38 1851878480
-14.353012 -1.704925 -11.294703 5.161513336226280e-39 1851878480
-99.000015 2.931417 -77.905296 1.880790849211783e-38 1819042167
-99.000015 1.466610 -77.905304 1.880790849211783e-38 1819042167
-18.256464 -1.624489 -14.366415 2.858063124464539e-39 1851878480
-16.071491 -1.669513 -12.647013 3.780739690508429e-39 1851878480
-99.000015 3.666293 -77.905296 1.880790849211783e-38 1819042167
-99.000023 2.198939 -77.905312 1.880790849211783e-38 1819042167
-19.584049 -1.597132 -15.411122 7.191253524145312e-39 1851878480
-21.123613 -1.565408 -16.622639 3.411599839946735e-39 1851878480
-99.000023 7.336598 -77.905304 1.880790849211783e-38 1819042167
-99.000023 5.132442 -77.905304 1.880790849211783e-38 1819042167
-25.045797 -1.484587 -19.709091 4.333554737281498e-39 1851878480
-22.918692 -1.528418 -18.035223 4.332834469870835e-39 1851878480
-99.000000 15.468046 -77.905296 1.880790849211783e-38 1819042167
-99.000023 10.284163 -77.905312 1.880790849211783e-38 1819042167
-27.615072 -1.431644 -21.730911 1.263080129127521e-38 1851878480
-29.917652 -1.329437 -23.542864 1.880790849211783e-38 1952867692
-99.000015 33.755470 -77.905304 1.880790849211783e-38 1819042167
-99.000023 22.968889 -77.905304 1.880790849211783e-38 1819042167
-29.902884 -0.885432 -23.531239 1.880790849211783e-38 1952867692
-3.267956 -1.933823 -2.553208 5.162592336043810e-39 1851878480
-30.111288 -0.666989 -23.525518 1.880790849211783e-38 1952867692
-30.126221 -1.112623 -23.537186 1.880790849211783e-38 1952867692
-5.325134 -1.891741 -4.160451 7.098700563173587e-39 1851878480
-7.294739 -1.851443 -5.699275 1.447073980609684e-38 1851878480
-97.791840 0.000000 -76.403366 7.927746569726686e-39 1851878480
-30.103842 -0.444747 -23.519701 1.880790849211783e-38 1952867692
-9.182161 -1.812832 -7.173891 5.439542161936039e-39 1851878480
-10.993488 -1.775773 -8.589056 3.226847045216294e-39 1851878480
-99.000015 0.730179 -77.347298 1.880790849211783e-38 1819042167
-71.878784 -0.530145 -56.157864 2.582556635990565e-39 1851878480
-12.730815 -1.740230 -9.946404 9.219562986332269e-39 1851878480
-14.401801 -1.706045 -11.251922 4.977122076499635e-39 1851878480
-99.000015 2.923405 -77.347298 1.880790849211783e-38 1819042167
-99.000008 1.462601 -77.347290 1.880790849211783e-38 1819042167
-18.321806 -1.625848 -14.314565 2.950258754327862e-39 1851878480
-16.127386 -1.670741 -12.600096 4.241716438526578e-39 1851878480
-99.000008 3.656273 -77.347290 1.880790849211783e-38 1819042167
-99.000015 2.192929 -77.347298 1.880790849211783e-38 1819042167
-19.655338 -1.598565 -15.356435 4.517940391814286e-39 1851878480
-21.201998 -1.566923 -16.564817 3.964413485421340e-39 1851878480
-99.000008 7.316545 -77.347290 1.880790849211783e-38 1819042167
-99.000015 5.118413 -77.347298 1.880790849211783e-38 1819042167
-25.143234 -1.486289 -19.644049 4.241001776309772e-39 1851878480
-23.005630 -1.530022 -17.973970 4.425031501032622e-39 1851878480
-99.000008 15.425769 -77.347282 1.880790849211783e-38 1819042167
-99.000015 10.256054 -77.347298 1.880790849211783e-38 1819042167
-27.725784 -1.433455 -21.661758 1.060285336409205e-38 1851878480
-30.133690 -1.335377 -23.543022 1.880790849211783e-38 1952867692
-99.000023 33.663216 -77.347298 1.880790849211783e-38 1819042167
-99.000008 22.906109 -77.347290 1.880790849211783e-38 1819042167
-30.118744 -0.889387 -23.531345 1.880790849211783e-38 1952867692
-3.277348 -1.934117 -2.542171 5.070756839885819e-39 1851878480
-30.329033 -0.669989 -23.525597 1.880790849211783e-38 1952867692
-30.344147 -1.117630 -23.537321 1.880790849211783e-38 1952867692
-5.340920 -1.892200 -4.142840 7.098340429468255e-39 1851878480
-7.317027 -1.852060 -5.675665 1.428670868007552e-38 1851878480
-98.498680 0.000000 -76.403374 3.411241107539868e-39 1851878480
-30.321491 -0.446746 -23.519747 1.880790849211783e-38 1952867692
-9.211019 -1.813594 -7.144795 5.347346532072716e-39 1851878480
-11.028953 -1.776667 -8.554929 3.595629564669585e-39 1851878480
-99.000015 0.728198 -76.792244 1.880790849211783e-38 1819042167
-72.312195 -0.531895 -56.091061 3.502354934988732e-39 1851878480
-12.772908 -1.741245 -9.907679 6.545889720295911e-39 1851878480
-14.450519 -1.707170 -11.208966 4.792730816772990e-39 1851878480
-99.000015 2.915471 -76.792244 1.880790849211783e-38 1819042167
-99.000008 1.458632 -76.792236 1.880790849211783e-38 1819042167
-18.387062 -1.627210 -14.262462 3.042454384191184e-39 1851878480
-16.183224 -1.671975 -12.552989 5.071475705998018e-39 1851878480
-99.000008 3.646350 -76.792244 1.880790849211783e-38 1819042167
-99.000015 2.186977 -76.792244 1.880790849211783e-38 1819042167
-19.726561 -1.600003 -15.301482 3.595984093181059e-39 1851878480
-21.280325 -1.568443 -16.506706 4.425391634737953e-39 1851878480
-99.000015 7.296689 -76.792252 1.880790849211783e-38 1819042167
-99.000023 5.104523 -76.792259 1.880790849211783e-38 1819042167
-25.240709 -1.488001 -19.578691 6.178193207152472e-39 1851878480
-23.092539 -1.531634 -17.912401 3.872216454259553e-39 1851878480
-99.000015 15.383907 -76.792244 1.880790849211783e-38 1819042167
-99.000023 10.228221 -76.792252 1.880790849211783e-38 1819042167
-27.836550 -1.435276 -21.592232 6.362214524084536e-39 1851878480
-30.351692 -1.341388 -23.543175 1.880790849211783e-38 1952867692
-99.000000 33.571850 -76.792236 1.880790849211783e-38 1819042167
-99.000038 22.843950 -76.792259 1.880790849211783e-38 1819042167
-30.336571 -0.893388 -23.531446 1.880790849211783e-38 1952867692
-3.286679 -1.934398 -2.531083 5.162592336043810e-39 1851878480
-47.413017 -1.044564 -36.512939 4.610147232065323e-39 1851878480
-35.162430 -1.291607 -27.078714 3.320123076195611e-39 1851878480
-5.356669 -1.892667 -4.125191 7.006504933310264e-39 1851878480
-7.339261 -1.852682 -5.651991 1.410231742034888e-38 1851878480
-99.000008 0.000000 -76.240273 1.880790849211783e-38 1819042167
-57.392418 -0.843322 -44.198109 4.886368382756103e-39 1851878480
-9.239789 -1.814357 -7.115595 4.978564012619425e-39 1851878480
-11.064347 -1.777567 -8.520694 3.780020824396230e-39 1851878480
-99.000015 0.726236 -76.240280 1.880790849211783e-38 1819042167
-72.748177 -0.533660 -56.023640 9.860246453310826e-39 1851878480
-12.814899 -1.742263 -9.868801 4.794172752892780e-39 1851878480
-14.499131 -1.708298 -11.165833 4.331754068754840e-39 1851878480
-99.000015 2.907617 -76.240280 1.880790849211783e-38 1819042167
-99.000008 1.454702 -76.240265 1.880790849211783e-38 1819042167
-18.452265 -1.628581 -14.210157 2.950260155626326e-39 1851878480
-16.238956 -1.673213 -12.505681 5.993071870925913e-39 1851878480
-99.000015 3.636527 -76.240273 1.880790849211783e-38 1819042167
-99.000008 2.181086 -76.240273 1.880790849211783e-38 1819042167
-19.797710 -1.601448 -15.246288 3.226842841320901e-39 1851878480
-21.358601 -1.569972 -16.448336 4.794174154191244e-39 1851878480
-99.000015 7.277031 -76.240273 1.880790849211783e-38 1819042167
-99.000015 5.090771 -76.240273 1.880790849211783e-38 1819042167
-25.338146 -1.489721 -19.512999 9.590513314509870e-39 1851878480
-23.179407 -1.533254 -17.850546 3.134651415352971e-39 1851878480
-99.000015 15.342463 -76.240273 1.880790849211783e-38 1819042167
-99.000023 10.200665 -76.240288 1.880790849211783e-38 1819042167
-27.947327 -1.437105 -21.522339 6.270018894221213e-39 1851878480
-31.143162 -1.372658 -23.983461 4.978569617813283e-39 1851878480
-99.000008 33.481407 -76.240273 1.880790849211783e-38 1819042167
-99.000008 22.782400 -76.240273 1.880790849211783e-38 1819042167
-40.388786 -1.186213 -31.103554 4.425754571040214e-39 1851878480
-3.296012 -1.934703 -2.519993 5.162592336043810e-39 1851878480
-47.643509 -1.046834 -36.426228 8.297616496788292e-39 1851878480
-35.313545 -1.293688 -26.999256 1.171100859747090e-38 1851878480
-5.372339 -1.893126 -4.107465 6.914309303446942e-39 1851878480
-7.361412 -1.853304 -5.628227 1.382573053075891e-38 1851878480
-99.000008 0.000000 -75.691246 1.880790849211783e-38 1819042167
-57.697815 -0.845542 -44.113327 4.424669966028826e-39 1851878480
-9.268493 -1.815125 -7.086301 4.517585863302812e-39 1851878480
-11.099619 -1.778464 -8.486302 4.333194603576166e-39 1851878480
-99.000000 0.724293 -75.691246 1.880790849211783e-38 1819042167
-73.186859 -0.535442 -55.955597 2.028302455694635e-39 1851878480
-12.856795 -1.743284 -9.829767 4.333194603576166e-39 1851878480
-14.547667 -1.709432 -11.122536 4.423949698618163e-39 1851878480
-99.000008 2.899839 -75.691254 1.880790849211783e-38 1819042167
-99.000008 1.450811 -75.691246 1.880790849211783e-38 1819042167
-18.517370 -1.629956 -14.157605 2.673673266036358e-39 1851878480
-16.294617 -1.674458 -12.458180 6.730278177425628e-39 1851878480
-99.000023 3.626800 -75.691261 1.880790849211783e-38 1819042167
-99.000008 2.175251 -75.691246 1.880790849211783e-38 1819042167
-19.868805 -1.602900 -15.190855 3.226842841320901e-39 1851878480
-21.436832 -1.571507 -16.389704 4.794174154191244e-39 1851878480
-99.000008 7.257566 -75.691254 1.880790849211783e-38 1819042167
-99.000023 5.077154 -75.691261 1.880790849211783e-38 1819042167
-25.435585 -1.491450 -19.446981 1.244858484676520e-38 1851878480
-23.266241 -1.534881 -17.788391 2.765868895899681e-39 1851878480
-99.000015 15.301425 -75.691261 1.880790849211783e-38 1819042167
-99.000023 10.173382 -75.691261 1.880790849211783e-38 1819042167
-28.058163 -1.438945 -21.452095 7.191975192854440e-39 1851878480
-31.271240 -1.374617 -23.908678 5.991279610190042e-39 1851878480
-99.000000 33.391850 -75.691246 1.880790849211783e-38 1819042167
-99.000015 22.721464 -75.691261 1.880790849211783e-38 1819042167
-40.572071 -1.188409 -31.019705 3.687832201025229e-39 1851878480
-3.305280 -1.934990 -2.508843 5.162593737342275e-39 1851878480
-47.874744 -1.049121 -36.338902 5.715775924312997e-39 1851878480
-35.464870 -1.295782 -26.919300 1.650338628703088e-38 1851878480
-5.387970 -1.893592 -4.089692 6.821754941176752e-39 1851878480
-7.383509 -1.853930 -5.604387 1.336475238144230e-38 1851878480
-99.000008 0.000000 -75.145088 1.880790849211783e-38 1819042167
-58.004589 -0.847780 -44.027874 2.950258754327862e-39 1851878480
-9.297105 -1.815893 -7.056885 4.240998973712844e-39 1851878480
-11.134831 -1.779367 -8.451796 4.793814020485913e-39 1851878480
-99.000008 0.722370 -75.145088 1.880790849211783e-38 1819042167
-73.628296 -0.537241 -55.886913 2.949898620622530e-39 1851878480
-12.898635 -1.744312 -9.790596 4.425390233439489e-39 1851878480
-14.596126 -1.710571 -11.079060 4.423949698618163e-39 1851878480
-99.000015 2.892138 -75.145088 1.880790849211783e-38 1819042167
-99.000008 1.446958 -75.145088 1.880790849211783e-38 1819042167
-18.582438 -1.631339 -14.104836 2.489282006309713e-39 1851878480
-16.350197 -1.675707 -12.410473 6.084908768382369e-39 1851878480
-99.000000 3.617167 -75.145081 1.880790849211783e-38 1819042167
-99.000008 2.169474 -75.145081 1.880790849211783e-38 1819042167
-19.939850 -1.604359 -15.135168 2.766223424411155e-39 1851878480
-21.515026 -1.573051 -16.330790 4.978565413917890e-39 1851878480
-99.000023 7.238293 -75.145088 1.880790849211783e-38 1819042167
-99.000023 5.063671 -75.145103 1.880790849211783e-38 1819042167
-25.533033 -1.493188 -19.380625 1.226347472092635e-38 1851878480
-23.353065 -1.536518 -17.725939 3.042455785489649e-39 1851878480
-99.000008 15.260786 -75.145088 1.880790849211783e-38 1819042167
-99.000008 10.146360 -75.145088 1.880790849211783e-38 1819042167
-28.169029 -1.440794 -21.381454 6.270021696818142e-39 1851878480
-31.399433 -1.376586 -23.833466 6.358618792225078e-39 1851878480
-99.000015 33.303169 -75.145088 1.880790849211783e-38 1819042167
-99.000008 22.661118 -75.145088 1.880790849211783e-38 1819042167
-40.755768 -1.190619 -30.935308 3.043184460691098e-39 1851878480
-3.314518 -1.935282 -2.497669 5.254787965907133e-39 1851878480
-48.106647 -1.051424 -36.250969 3.687825194532908e-39 1851878480
-35.616405 -1.297887 -26.838892 1.226346210924017e-38 1851878480
-5.403550 -1.894060 -4.071869 6.729919445018761e-39 1851878480
-7.405536 -1.854559 -5.580473 1.290413296453255e-38 1851878480
-99.000015 0.000000 -74.601891 1.880790849211783e-38 1819042167
-58.312649 -0.850035 -43.941742 2.581476234874571e-39 1851878480
-9.325657 -1.816668 -7.027389 4.056607713986198e-39 1851878480
-11.169961 -1.780275 -8.417171 4.978203878914094e-39 1851878480
-99.000023 0.720465 -74.601883 1.880790849211783e-38 1819042167
-74.072418 -0.539057 -55.817585 3.964412084122876e-39 1851878480
-12.940338 -1.745338 -9.751248 4.240998973712844e-39 1851878480
-14.644485 -1.711714 -11.035415 4.239918572596849e-39 1851878480
-99.000008 2.884513 -74.601883 1.880790849211783e-38 1819042167
-99.000008 1.443143 -74.601875 1.880790849211783e-38 1819042167
-18.647402 -1.632727 -14.051829 2.674033399741689e-39 1851878480
-16.405684 -1.676961 -12.362574 5.347343729475787e-39 1851878480
-99.000015 3.607632 -74.601883 1.880790849211783e-38 1819042167
-99.000015 2.163755 -74.601883 1.880790849211783e-38 1819042167
-20.010801 -1.605823 -15.079226 2.489277802414320e-39 1851878480
-21.593147 -1.574600 -16.271608 5.255150902209393e-39 1851878480
-99.000000 7.219209 -74.601875 1.880790849211783e-38 1819042167
-99.000031 5.050321 -74.601898 1.880790849211783e-38 1819042167
-25.630455 -1.494934 -19.313938 8.944426440652877e-39 1851878480
-23.439835 -1.538161 -17.663189 4.056606312687734e-39 1851878480
-99.000015 15.220554 -74.601891 1.880790849211783e-38 1819042167
-99.000015 10.119612 -74.601883 1.880790849211783e-38 1819042167
-28.279940 -1.442654 -21.310471 6.730280980022556e-39 1851878480
-31.527714 -1.378566 -23.757843 8.753904500144811e-39 1851878480
-99.000008 33.215370 -74.601875 1.880790849211783e-38 1819042167
-99.000015 22.601377 -74.601883 1.880790849211783e-38 1819042167
-40.939831 -1.192843 -30.850386 3.781108232004546e-39 1851878480
-3.323713 -1.935571 -2.486454 5.346983595770456e-39 1851878480
-48.339283 -1.053743 -36.162395 3.410879572536072e-39 1851878480
-35.768158 -1.300006 -26.757996 4.518304729415010e-39 1851878480
-5.419071 -1.894529 -4.053983 6.729560712611893e-39 1851878480
-7.427462 -1.855181 -5.556449 1.225912509049309e-38 1851878480
-99.000023 0.000000 -74.061462 1.880790849211783e-38 1819042167
-58.622078 -0.852309 -43.854908 6.084552838572430e-39 1851878480
-9.354123 -1.817443 -6.997777 3.780020824396230e-39 1851878480
-11.204989 -1.781183 -8.382401 4.793812619187448e-39 1851878480
-99.000000 0.718579 -74.061447 1.880790849211783e-38 1819042167
-74.519341 -0.540890 -55.747578 3.134294084244569e-39 1851878480
-12.981997 -1.746374 -9.711773 3.780020824396230e-39 1851878480
-14.692767 -1.712862 -10.991591 4.239918572596849e-39 1851878480
-99.000008 2.876963 -74.061447 1.880790849211783e-38 1819042167
-99.000023 1.439366 -74.061462 1.880790849211783e-38 1819042167
-18.712311 -1.634121 -13.998594 3.227207178921626e-39 1851878480
-16.461086 -1.678220 -12.314464 4.794171351594316e-39 1851878480
-99.000000 3.598188 -74.061447 1.880790849211783e-38 1819042167
-99.000023 2.158092 -74.061462 1.880790849211783e-38 1819042167
-20.081701 -1.607295 -15.023029 1.936464156939715e-39 1851878480
-21.671227 -1.576157 -16.212145 5.531737791799361e-39 1851878480
-99.000008 7.200311 -74.061447 1.880790849211783e-38 1819042167
-99.000015 5.037100 -74.061447 1.880790849211783e-38 1819042167
-25.727884 -1.496688 -19.246912 5.993440412422031e-39 1851878480
-23.526579 -1.539812 -17.600126 5.439540760637574e-39 1851878480
-99.000015 15.180713 -74.061462 1.880790849211783e-38 1819042167
-99.000015 10.093122 -74.061455 1.880790849211783e-38 1819042167
-28.390886 -1.444523 -21.239090 8.758586238314120e-39 1851878480
-31.656128 -1.380558 -23.681805 8.385477910501458e-39 1851878480
-99.000000 33.128422 -74.061440 1.880790849211783e-38 1819042167
-99.000023 22.542215 -74.061462 1.880790849211783e-38 1819042167
-41.124294 -1.195081 -30.764894 3.596715570979437e-39 1851878480
-3.332878 -1.935865 -2.475214 5.438820493226911e-39 1851878480
-48.572620 -1.056078 -36.073215 3.226129580402560e-39 1851878480
-35.920097 -1.302136 -26.676624 5.993434807228173e-39 1851878480
-5.434535 -1.894998 -4.036043 6.729560712611893e-39 1851878480
-7.449352 -1.855814 -5.532378 1.170595271261162e-38 1851878480
-99.000015 0.000000 -73.523926 1.880790849211783e-38 1819042167
-58.932823 -0.854601 -43.767384 3.871854919255757e-39 1851878480
-9.382496 -1.818219 -6.968058 3.503433934806262e-39 1851878480
-11.239942 -1.782097 -8.347519 4.517227130895945e-39 1851878480
-99.000008 0.716712 -73.523911 1.880790849211783e-38 1819042167
-74.969017 -0.542740 -55.676918 4.056610516583127e-39 1851878480
-13.023548 -1.747411 -9.672142 3.319042675079617e-39 1851878480
-14.740944 -1.714013 -10.947593 4.424308431025030e-39 1851878480
-99.000015 2.869488 -73.523911 1.880790849211783e-38 1819042167
-99.000023 1.435626 -73.523911 1.880790849211783e-38 1819042167
-18.777128 -1.635521 -13.945129 4.149523611260184e-39 1851878480
-16.516420 -1.679486 -12.266178 4.701975721730993e-39 1851878480
-99.000023 3.588840 -73.523918 1.880790849211783e-38 1819042167
-99.000015 2.152484 -73.523911 1.880790849211783e-38 1819042167
-20.152534 -1.608773 -14.966596 1.567322905079557e-39 1851878480
-21.749249 -1.577722 -16.152422 5.716489185231338e-39 1851878480
-99.000015 7.181604 -73.523918 1.880790849211783e-38 1819042167
-99.000008 5.024012 -73.523903 1.880790849211783e-38 1819042167
-25.825304 -1.498452 -19.179565 5.348065398184915e-39 1851878480
-23.613276 -1.541471 -17.536770 6.729204782801955e-39 1851878480
-99.000008 15.141267 -73.523911 1.880790849211783e-38 1819042167
-99.000000 10.066896 -73.523903 1.880790849211783e-38 1819042167
-28.501854 -1.446401 -21.167349 1.152517960551986e-38 1851878480
-31.784609 -1.382560 -23.605339 6.081667565034386e-39 1851878480
-99.000008 33.042347 -73.523903 1.880790849211783e-38 1819042167
-99.000015 22.483644 -73.523918 1.880790849211783e-38 1819042167
-41.309143 -1.197334 -30.678883 3.504159807410782e-39 1851878480
-3.342009 -1.936161 -2.463940 5.531016123090234e-39 1851878480
-48.806721 -1.058431 -35.983406 2.949900021920995e-39 1851878480
-36.072292 -1.304279 -26.594776 1.115602714327198e-38 1851878480
-5.449935 -1.895466 -4.018037 6.821756342475216e-39 1851878480
-7.471165 -1.856446 -5.508215 1.124533329570187e-38 1851878480
-99.000015 0.000000 -72.989082 1.880790849211783e-38 1819042167
-59.244984 -0.856911 -43.679150 3.872582193158742e-39 1851878480
-9.410803 -1.819000 -6.938240 3.319042675079617e-39 1851878480
-11.274826 -1.783016 -8.312515 4.424671367327290e-39 1851878480
-99.000015 0.714863 -72.989075 1.880790849211783e-38 1819042167
-75.421623 -0.544608 -55.605595 1.844274132270250e-39 1851878480
-13.065030 -1.748454 -9.632368 3.042455785489649e-39 1851878480
-14.789046 -1.715170 -10.903422 4.608339557046344e-39 1851878480
-99.000015 2.862085 -72.989082 1.880790849211783e-38 1819042167
-99.000008 1.431922 -72.989067 1.880790849211783e-38 1819042167
-18.841887 -1.636928 -13.891432 4.611223429285925e-39 1851878480
-16.571665 -1.680756 -12.217679 4.609780091867670e-39 1851878480
-99.000031 3.579581 -72.989090 1.880790849211783e-38 1819042167
-99.000023 2.146931 -72.989090 1.880790849211783e-38 1819042167
-20.223295 -1.610257 -14.909894 1.475127275216234e-39 1851878480
-21.827213 -1.579293 -16.092403 5.347347933371180e-39 1851878480
-98.999992 7.163075 -72.989059 1.880790849211783e-38 1819042167
-99.000008 5.011051 -72.989067 1.880790849211783e-38 1819042167
-25.922731 -1.500225 -19.111879 5.808682012497732e-39 1851878480
-23.699959 -1.543138 -17.473110 8.203978930805179e-39 1851878480
-99.000015 15.102206 -72.989082 1.880790849211783e-38 1819042167
-99.000015 10.040926 -72.989075 1.880790849211783e-38 1819042167
-28.612902 -1.448290 -21.095242 1.346272976876942e-38 1851878480
-31.913240 -1.384574 -23.528463 6.452608084122737e-39 1851878480
-99.000015 32.957108 -72.989082 1.880790849211783e-38 1819042167
-99.000008 22.425638 -72.989075 1.880790849211783e-38 1819042167
-41.494411 -1.199601 -30.592308 2.950265760820183e-39 1851878480
-3.351101 -1.936457 -2.452635 5.623210351655092e-39 1851878480
-49.041500 -1.060799 -35.892956 3.872216454259553e-39 1851878480
-36.224670 -1.306435 -26.512455 1.299921526923238e-38 1851878480
-5.465302 -1.895943 -3.999997 7.006149003500326e-39 1851878480
-7.492911 -1.857082 -5.483982 1.106094063467676e-38 1851878480
-99.000015 0.000000 -72.457062 1.880790849211783e-38 1819042167
-59.558495 -0.859240 -43.590233 2.765868895899681e-39 1851878480
-9.439032 -1.819784 -6.908327 3.226847045216294e-39 1851878480
-11.309603 -1.783936 -8.277379 4.701615588025661e-39 1851878480
-99.000008 0.713033 -72.457062 1.880790849211783e-38 1819042167
-75.877022 -0.546493 -55.533588 2.120500888154886e-39 1851878480
-13.106412 -1.749501 -9.592443 2.581477636173035e-39 1851878480
-14.837060 -1.716332 -10.859088 4.608699690751676e-39 1851878480
-99.000008 2.854756 -72.457062 1.880790849211783e-38 1819042167
-99.000023 1.428256 -72.457077 1.880790849211783e-38 1819042167
-18.906559 -1.638340 -13.837510 4.334276405990625e-39 1851878480
-16.626810 -1.682031 -12.168986 4.056607713986198e-39 1851878480
-99.000023 3.570415 -72.457069 1.880790849211783e-38 1819042167
-99.000023 2.141433 -72.457069 1.880790849211783e-38 1819042167
-20.293991 -1.611748 -14.852957 1.659158401237548e-39 1851878480
-21.905106 -1.580870 -16.032116 4.793456689377510e-39 1851878480
-99.000008 7.144733 -72.457062 1.880790849211783e-38 1819042167
-99.000015 4.998219 -72.457062 1.880790849211783e-38 1819042167
-26.020149 -1.502006 -19.043871 4.610136021677609e-39 1851878480
-23.786596 -1.544813 -17.409157 9.126296764442202e-39 1851878480
-99.000015 15.063533 -72.457062 1.880790849211783e-38 1819042167
-99.000008 10.015214 -72.457062 1.880790849211783e-38 1819042167
-28.723942 -1.450187 -21.022749 1.401482034423644e-38 1851878480
-32.041958 -1.386598 -23.451166 9.403589908458190e-39 1851878480
-99.000015 32.872711 -72.457062 1.880790849211783e-38 1819042167
-99.000023 22.368214 -72.457069 1.880790849211783e-38 1819042167
-41.680046 -1.201882 -30.505186 2.028665391996895e-39 1851878480
-3.360164 -1.936758 -2.441301 5.715047249111548e-39 1851878480
-49.277069 -1.063184 -35.801868 4.240998973712844e-39 1851878480
-36.377293 -1.308604 -26.429634 1.207725616800223e-38 1851878480
-5.480602 -1.896417 -3.981889 7.374931522953617e-39 1851878480
-7.514584 -1.857719 -5.459662 1.078471387879212e-38 1851878480
-99.000008 0.000000 -71.927681 1.880790849211783e-38 1819042167
-59.873436 -0.861587 -43.500580 5.348431137084103e-39 1851878480
-9.467184 -1.820572 -6.878308 3.042455785489649e-39 1851878480
-11.344285 -1.784857 -8.242102 5.346984997068920e-39 1851878480
-99.000008 0.711220 -71.927681 1.880790849211783e-38 1819042167
-76.335411 -0.548397 -55.460896 2.950261556924790e-39 1851878480
-13.147686 -1.750548 -9.552347 2.397086376446390e-39 1851878480
-14.884976 -1.717498 -10.814563 4.700895320614998e-39 1851878480
-99.000015 2.847498 -71.927681 1.880790849211783e-38 1819042167
-99.000015 1.424624 -71.927689 1.880790849211783e-38 1819042167
-18.971140 -1.639757 -13.783333 4.334273603393697e-39 1851878480
-16.681877 -1.683311 -12.120087 3.595629564669585e-39 1851878480
-99.000015 3.561337 -71.927681 1.880790849211783e-38 1819042167
-99.000015 2.135989 -71.927689 1.880790849211783e-38 1819042167
-20.364628 -1.613246 -14.795761 1.843549660964194e-39 1851878480
-21.982973 -1.582456 -15.971558 5.346630468557446e-39 1851878480
-99.000008 7.126569 -71.927689 1.880790849211783e-38 1819042167
-99.000008 4.985512 -71.927681 1.880790849211783e-38 1819042167
-26.117558 -1.503796 -18.975510 3.503788463317736e-39 1851878480
-23.873209 -1.546496 -17.344893 8.021024002004467e-39 1851878480
-99.000000 15.025234 -71.927681 1.880790849211783e-38 1819042167
-99.000015 9.989753 -71.927689 1.880790849211783e-38 1819042167
-28.835049 -1.452096 -20.949879 1.456798851822252e-38 1851878480
-32.170780 -1.388633 -23.373428 1.143117910323448e-38 1851878480
-99.000008 32.789139 -71.927681 1.880790849211783e-38 1819042167
-99.000023 22.311348 -71.927696 1.880790849211783e-38 1819042167
-41.866116 -1.204178 -30.417496 3.411241107539868e-39 1851878480
-3.369183 -1.937056 -2.429931 5.807242878974871e-39 1851878480
-49.513336 -1.065586 -35.710140 3.319044076378081e-39 1851878480
-36.530109 -1.310785 -26.346346 1.004930263562521e-38 1851878480
-5.495852 -1.896895 -3.963733 7.651518412543585e-39 1851878480
-7.536200 -1.858361 -5.435278 1.078471107619519e-38 1851878480
-99.000008 0.000000 -71.401054 1.880790849211783e-38 1819042167
-60.189754 -0.863954 -43.410221 5.532096524206229e-39 1851878480
-9.495248 -1.821360 -6.848188 2.950260155626326e-39 1851878480
-11.378894 -1.785785 -8.206717 6.453331154130328e-39 1851878480
-99.000008 0.709425 -71.401054 1.880790849211783e-38 1819042167
-76.796692 -0.550318 -55.387520 1.207763171599067e-38 1851878480
-13.188884 -1.751602 -9.512122 2.120499486856422e-39 1851878480
-14.932799 -1.718668 -10.769875 4.884926446636312e-39 1851878480
-99.000008 2.840312 -71.401054 1.880790849211783e-38 1819042167
-99.000023 1.421029 -71.401070 1.880790849211783e-38 1819042167
-19.035664 -1.641182 -13.728953 4.517945997008143e-39 1851878480
-16.736851 -1.684596 -12.070996 3.688183926939775e-39 1851878480
-99.000008 3.552350 -71.401054 1.880790849211783e-38 1819042167
-99.000015 2.130599 -71.401054 1.880790849211783e-38 1819042167
-20.435204 -1.614752 -14.738333 2.212692314122816e-39 1851878480
-22.060787 -1.584050 -15.910742 7.835912474867159e-39 1851878480
-99.000015 7.108585 -71.401062 1.880790849211783e-38 1819042167
-99.000015 4.972931 -71.401054 1.880790849211783e-38 1819042167
-26.214945 -1.505595 -18.906815 2.489636534821187e-39 1851878480
-23.959761 -1.548186 -17.280321 6.546252656598171e-39 1851878480
-99.000023 14.987321 -71.401062 1.880790849211783e-38 1819042167
-99.000008 9.964542 -71.401054 1.880790849211783e-38 1819042167
-28.946182 -1.454014 -20.876644 1.290773710418279e-38 1851878480
-32.299690 -1.390680 -23.295271 7.928465435838884e-39 1851878480
-99.000015 32.706394 -71.401054 1.880790849211783e-38 1819042167
-99.000015 22.255043 -71.401054 1.880790849211783e-38 1819042167
-42.052574 -1.206489 -30.329271 5.254793571100990e-39 1851878480
-3.378165 -1.937354 -2.418530 6.083110902452640e-39 1851878480
-49.750362 -1.068005 -35.617775 4.978566815216354e-39 1851878480
-36.683144 -1.312979 -26.262564 5.993059259239734e-39 1851878480
-5.511033 -1.897369 -3.945513 7.928105302133553e-39 1851878480
-7.557716 -1.858998 -5.410796 1.087726543846538e-38 1851878480
-99.000015 0.000000 -70.877075 1.880790849211783e-38 1819042167
-60.507492 -0.866339 -43.319130 4.332830265975442e-39 1851878480
-9.523218 -1.822150 -6.817957 2.950618888033193e-39 1851878480
-11.413418 -1.786716 -8.171207 7.283090421601768e-39 1851878480
-99.000008 0.707648 -70.877068 1.880790849211783e-38 1819042167
-77.260948 -0.552258 -55.313427 4.793093753075250e-39 1851878480
-13.229995 -1.752661 -9.471750 2.028303856993099e-39 1851878480
-14.980530 -1.719842 -10.725011 5.254070501093399e-39 1851878480
-99.000023 2.833197 -70.877075 1.880790849211783e-38 1819042167
-99.000015 1.417470 -70.877075 1.880790849211783e-38 1819042167
-19.100090 -1.642611 -13.674327 4.056607713986198e-39 1851878480
-16.791744 -1.685888 -12.021712 3.872576587964884e-39 1851878480
-99.000023 3.543452 -70.877083 1.880790849211783e-38 1819042167
-99.000008 2.125261 -70.877068 1.880790849211783e-38 1819042167
-20.505680 -1.616262 -14.680631 2.949897219324066e-39 1851878480
-22.138531 -1.585650 -15.849636 1.032591334728907e-38 1851878480
-99.000008 7.090778 -70.877068 1.880790849211783e-38 1819042167
-99.000000 4.960474 -70.877068 1.880790849211783e-38 1819042167
-26.312342 -1.507403 -18.837795 2.766226227008084e-39 1851878480
-24.046274 -1.549884 -17.215448 4.241719241123507e-39 1851878480
-99.000000 14.949775 -70.877060 1.880790849211783e-38 1819042167
-99.000008 9.939582 -70.877068 1.880790849211783e-38 1819042167
-29.057352 -1.455942 -20.803028 8.021728855132022e-39 1851878480
-32.428707 -1.392737 -23.216684 3.134651415352971e-39 1851878480
-99.000008 32.624466 -70.877075 1.880790849211783e-38 1819042167
-99.000008 22.199291 -70.877068 1.880790849211783e-38 1819042167
-42.239429 -1.208814 -30.240471 1.216838120583880e-38 1851878480
-3.387103 -1.937649 -2.407088 6.267500760880821e-39 1851878480
-49.988167 -1.070441 -35.524734 5.808328885284722e-39 1851878480
-36.836414 -1.315186 -26.178272 8.482351074638697e-39 1851878480
-5.526165 -1.897848 -3.927241 8.112496561860198e-39 1851878480
-7.579176 -1.859640 -5.386239 1.106165809949049e-38 1851878480
-99.000008 0.000000 -70.355629 1.880790849211783e-38 1819042167
-60.826740 -0.868744 -43.227306 3.780019423097766e-39 1851878480
-9.551132 -1.822946 -6.787636 3.042815919194980e-39 1851878480
-11.447852 -1.787650 -8.135564 8.020656861806814e-39 1851878480
-99.000015 0.705888 -70.355637 1.880790849211783e-38 1819042167
-77.728310 -0.554217 -55.238625 4.701621193219519e-39 1851878480
-13.271002 -1.753721 -9.431210 2.120499486856422e-39 1851878480
-15.028178 -1.721021 -10.679968 5.991997075003776e-39 1851878480
-99.000000 2.826151 -70.355629 1.880790849211783e-38 1819042167
-99.000015 1.413944 -70.355637 1.880790849211783e-38 1819042167
-19.164461 -1.644048 -13.619472 4.886368382756103e-39 1851878480
-16.846550 -1.687184 -11.972218 3.780739690508429e-39 1851878480
-99.000015 3.534639 -70.355637 1.880790849211783e-38 1819042167
-99.000023 2.119977 -70.355644 1.880790849211783e-38 1819042167
-20.576101 -1.617779 -14.622671 3.318681140075821e-39 1851878480
-22.216221 -1.587258 -15.788243 9.127371560364339e-39 1851878480
-99.000008 7.073143 -70.355629 1.880790849211783e-38 1819042167
-99.000023 4.948138 -70.355644 1.880790849211783e-38 1819042167
